ncols        137
nrows        32
xllcorner    393007.144373
yllcorner    5822397.06406
cellsize     25.000000000000
NODATA_value  -3.4028234663852885981e+38
54.51569366455078125 55.40915679931640625 56.1127166748046875 56.681400299072265625 56.927494049072265625 56.93267822265625 57.06917572021484375 57.324131011962890625 57.675323486328125 58.22292327880859375 58.933563232421875 59.554279327392578125 60.3031005859375 60.16607666015625 58.779083251953125 57.831607818603515625 56.808048248291015625 56.30080413818359375 55.844287872314453125 55.094684600830078125 54.153045654296875 53.573802947998046875 53.42543792724609375 53.473209381103515625 53.497127532958984375 53.543720245361328125 53.5920562744140625 53.491588592529296875 53.086246490478515625 53.04039764404296875 52.98772430419921875 52.949466705322265625 52.936923980712890625 53.060436248779296875 53.367702484130859375 53.50583648681640625 53.29807281494140625 52.966869354248046875 52.575901031494140625 52.137485504150390625 51.69483184814453125 51.255664825439453125 50.80745697021484375 50.456737518310546875 50.121082305908203125 49.992465972900390625 49.878803253173828125 49.534427642822265625 49.09295654296875 48.902667999267578125 48.925174713134765625 48.85201263427734375 48.573993682861328125 48.372966766357421875 48.339324951171875 48.349414825439453125 48.301662445068359375 47.911418914794921875 47.893978118896484375 47.912731170654296875 47.941860198974609375 47.977428436279296875 47.9923095703125 47.9824676513671875 47.959087371826171875 47.921512603759765625 47.883148193359375 47.868160247802734375 47.87142181396484375 48.0405120849609375 48.486328125 48.7935791015625 49.2207489013671875 49.190765380859375 49.15113067626953125 49.0957489013671875 49.07083892822265625 49.09259033203125 49.22750091552734375 49.57897186279296875 49.97344207763671875 50.37500762939453125 50.79931640625 51.247959136962890625 51.745609283447265625 52.047557830810546875 52.09879302978515625 51.870731353759765625 52.29019927978515625 52.7476654052734375 53.197025299072265625 53.61029815673828125 54.030956268310546875 54.78050994873046875 55.50267791748046875 55.769317626953125 55.853641510009765625 55.94952392578125 56.0809326171875 56.37897491455078125 56.7782135009765625 57.210239410400390625 57.6483306884765625 57.902069091796875 57.924999237060546875 57.89273834228515625 57.80300140380859375 57.684520721435546875 57.503856658935546875 57.247646331787109375 56.8505859375 56.26700592041015625 56.09810638427734375 56.26210784912109375 56.58270263671875 57.54856109619140625 59.31833648681640625 59.08913421630859375 58.32373809814453125 57.14908599853515625 55.90045166015625 54.719951629638671875 54.34117889404296875 54.19507598876953125 54.059528350830078125 53.96511077880859375 53.999996185302734375 54.126865386962890625 54.450603485107421875 54.9542388916015625 55.591464996337890625 55.185882568359375 54.683132171630859375 54.06769561767578125 53.460300445556640625 53.0472564697265625 52.729564666748046875
55.35863494873046875 56.05950927734375 56.441356658935546875 56.787433624267578125 56.927753448486328125 56.930660247802734375 56.994476318359375 57.131572723388671875 57.41214752197265625 58.059123992919921875 58.908290863037109375 59.692607879638671875 60.732578277587890625 60.6360931396484375 59.216373443603515625 58.075145721435546875 56.934314727783203125 56.35637664794921875 56.00522613525390625 55.512760162353515625 54.877635955810546875 54.30463409423828125 54.073455810546875 54.102931976318359375 54.131587982177734375 54.15462493896484375 54.12740325927734375 53.917877197265625 53.3400421142578125 53.168621063232421875 53.0025787353515625 52.929065704345703125 52.9270477294921875 53.0143585205078125 53.2485504150390625 53.386508941650390625 53.24843597412109375 52.97559356689453125 52.600788116455078125 52.160152435302734375 51.714176177978515625 51.275463104248046875 50.83145904541015625 50.3706207275390625 49.990100860595703125 49.77999114990234375 49.595394134521484375 49.2459564208984375 48.80338287353515625 48.660991668701171875 48.78046417236328125 48.86394500732421875 48.831714630126953125 48.774120330810546875 48.74579620361328125 48.746395111083984375 48.660549163818359375 48.203418731689453125 48.102108001708984375 48.00457000732421875 47.90027618408203125 47.788394927978515625 47.68605804443359375 47.64313507080078125 47.627964019775390625 47.611751556396484375 47.597381591796875 47.5839080810546875 47.569286346435546875 47.67913055419921875 48.0390167236328125 48.405185699462890625 48.840816497802734375 48.822963714599609375 48.841419219970703125 48.900501251220703125 48.9979095458984375 49.083736419677734375 49.2817230224609375 49.67476654052734375 50.131031036376953125 50.5759429931640625 51.03173065185546875 51.5507659912109375 52.181034088134765625 52.63747406005859375 52.09879302978515625 52.2732391357421875 52.75051116943359375 53.208957672119140625 53.643039703369140625 53.973728179931640625 54.3629608154296875 55.1283416748046875 55.950283050537109375 56.14763641357421875 56.091167449951171875 56.02246856689453125 56.03296661376953125 56.289409637451171875 56.73648834228515625 57.187648773193359375 57.630809783935546875 57.89604949951171875 57.924999237060546875 57.9142913818359375 57.892841339111328125 57.821956634521484375 57.596553802490234375 57.239013671875 56.702075958251953125 56.04138946533203125 55.731586456298828125 55.814571380615234375 56.11423492431640625 56.733623504638671875 58.22814178466796875 58.29358673095703125 57.61859893798828125 56.5486602783203125 55.0645294189453125 54.13443756103515625 53.993785858154296875 53.9388885498046875 53.886867523193359375 53.849964141845703125 53.8497772216796875 53.891345977783203125 54.12775421142578125 54.5740966796875 55.112743377685546875 54.758777618408203125 54.25753021240234375 53.58191680908203125 52.844287872314453125 52.4258575439453125 52.27017974853515625
56.2791595458984375 56.535552978515625 56.65955352783203125 56.7685699462890625 56.86606597900390625 56.901737213134765625 56.96854400634765625 57.06121826171875 57.35147857666015625 58.05937957763671875 58.943683624267578125 59.718780517578125 61.0154266357421875 60.957275390625 59.347980499267578125 58.13694000244140625 56.86612701416015625 56.268169403076171875 55.9322052001953125 55.711177825927734375 55.321170806884765625 54.807048797607421875 54.54038238525390625 54.54192352294921875 54.583984375 54.607757568359375 54.55199432373046875 54.299762725830078125 53.646320343017578125 53.36901092529296875 53.084209442138671875 52.9378662109375 52.9286041259765625 52.9746246337890625 53.077785491943359375 53.144439697265625 53.055202484130859375 52.891719818115234375 52.53441619873046875 51.975681304931640625 51.560115814208984375 51.223560333251953125 50.81231689453125 50.39203643798828125 49.9713592529296875 49.658603668212890625 49.368335723876953125 48.9684906005859375 48.541950225830078125 48.428897857666015625 48.680538177490234375 48.93152618408203125 49.133892059326171875 49.19632720947265625 49.1747283935546875 49.164653778076171875 49.05419921875 48.509765625 48.32338714599609375 48.099414825439453125 47.886444091796875 47.638683319091796875 47.427581787109375 47.359676361083984375 47.343505859375 47.329143524169921875 47.31591033935546875 47.303401947021484375 47.292407989501953125 47.38686370849609375 47.756946563720703125 48.13260650634765625 48.51065826416015625 48.503314971923828125 48.596012115478515625 48.7852630615234375 48.99008941650390625 49.18709564208984375 49.468112945556640625 49.8870086669921875 50.34943389892578125 50.80242156982421875 51.250377655029296875 51.910675048828125 52.739795684814453125 53.424709320068359375 52.73615264892578125 52.950054168701171875 53.426822662353515625 53.91712188720703125 54.277164459228515625 54.49138641357421875 54.8408660888671875 55.576099395751953125 56.43939971923828125 56.546566009521484375 56.357334136962890625 56.155487060546875 56.043987274169921875 56.262546539306640625 56.708171844482421875 57.1658935546875 57.6120147705078125 57.889404296875 57.924999237060546875 57.924739837646484375 57.924663543701171875 57.892566680908203125 57.699428558349609375 57.3945159912109375 56.887664794921875 56.17441558837890625 55.7564697265625 55.794681549072265625 55.968441009521484375 56.297607421875 57.34072113037109375 57.36495208740234375 56.922519683837890625 55.907382965087890625 54.45156097412109375 53.772380828857421875 53.692356109619140625 53.674274444580078125 53.65793609619140625 53.64321136474609375 53.63204193115234375 53.629364013671875 53.829315185546875 54.237308502197265625 54.7110443115234375 54.37499237060546875 53.8752593994140625 53.18054962158203125 52.38652801513671875 52.00945281982421875 51.98413848876953125
56.693965911865234375 56.66101837158203125 56.63460540771484375 56.63460540771484375 56.65103912353515625 56.799999237060546875 56.984470367431640625 57.177906036376953125 57.4953155517578125 58.245487213134765625 59.042766571044921875 59.875789642333984375 61.185047149658203125 61.138187408447265625 59.44858551025390625 58.162136077880859375 56.905796051025390625 56.1730194091796875 55.872509002685546875 55.74138641357421875 55.406444549560546875 54.950557708740234375 54.6978759765625 54.68160247802734375 54.66417694091796875 54.7628326416015625 54.793361663818359375 54.563503265380859375 53.947490692138671875 53.603801727294921875 53.2589874267578125 53.073413848876953125 53.029399871826171875 53.004245758056640625 52.97042083740234375 52.91301727294921875 52.79062652587890625 52.57346343994140625 52.027835845947265625 51.08409881591796875 50.682338714599609375 50.7335662841796875 50.60317230224609375 50.399627685546875 50.004161834716796875 49.65966033935546875 49.31958770751953125 48.938182830810546875 48.54413604736328125 48.436962127685546875 48.736003875732421875 49.095977783203125 49.407390594482421875 49.60433197021484375 49.73664093017578125 49.70864105224609375 49.5884857177734375 48.840389251708984375 48.572296142578125 48.247493743896484375 47.915897369384765625 47.56713104248046875 47.22998809814453125 47.1262054443359375 47.141284942626953125 47.15020751953125 47.161472320556640625 47.1694183349609375 47.17075347900390625 47.272129058837890625 47.6357421875 48.027256011962890625 48.256328582763671875 48.258808135986328125 48.43393707275390625 48.7221221923828125 49.033447265625 49.367984771728515625 49.73484039306640625 50.176807403564453125 50.6321258544921875 51.086307525634765625 51.59250640869140625 52.460437774658203125 53.53621673583984375 54.3001861572265625 53.594234466552734375 53.8297271728515625 54.3230133056640625 54.699329376220703125 55.08809661865234375 55.197113037109375 55.406158447265625 56.266933441162109375 57.002716064453125 56.947658538818359375 56.6408843994140625 56.333362579345703125 56.09433746337890625 56.254116058349609375 56.703022003173828125 57.14498138427734375 57.593997955322265625 57.881153106689453125 57.924999237060546875 57.924999237060546875 57.924999237060546875 57.910274505615234375 57.803539276123046875 57.628368377685546875 57.259059906005859375 56.69078826904296875 56.26065826416015625 56.072662353515625 55.9602203369140625 56.297607421875 56.699581146240234375 56.55926513671875 56.193744659423828125 55.259502410888671875 54.014659881591796875 53.497127532958984375 53.41313934326171875 53.40155029296875 53.389141082763671875 53.374088287353515625 53.35874176025390625 53.348209381103515625 53.53871917724609375 53.945346832275390625 54.39427947998046875 54.057582855224609375 53.562679290771484375 52.905979156494140625 52.206111907958984375 51.925785064697265625 51.921329498291015625
56.604282379150390625 56.411815643310546875 56.219066619873046875 56.263763427734375 56.60906219482421875 57.00766754150390625 57.417896270751953125 57.89737701416015625 58.59529876708984375 59.294773101806640625 60.054416656494140625 61.249927520751953125 61.190704345703125 59.55889892578125 58.218402862548828125 57.0170440673828125 56.142364501953125 55.782764434814453125 55.6186676025390625 55.2884674072265625 54.838741302490234375 54.57952117919921875 54.54764556884765625 54.5957794189453125 54.742923736572265625 54.834163665771484375 54.731533050537109375 54.496898651123046875 53.9046478271484375 53.594211578369140625 53.393695831298828125 53.283050537109375 53.149394989013671875 52.93228912353515625 52.682781219482421875 52.38065338134765625 51.92755889892578125 51.345623016357421875 50.26586151123046875 49.481716156005859375 49.7979583740234375 50.19533538818359375 50.23853302001953125 50.1064300537109375 49.795436859130859375 49.437374114990234375 49.1114349365234375 48.7695770263671875 48.693714141845703125 48.99036407470703125 49.364421844482421875 49.795413970947265625 50.172222137451171875 50.385593414306640625 50.377986907958984375 50.29669189453125 50.067760467529296875 48.949161529541015625 48.5553131103515625 48.122753143310546875 47.608699798583984375 47.163593292236328125 47.0361175537109375 47.091396331787109375 47.167835235595703125 47.252277374267578125 47.322925567626953125 47.3465118408203125 47.452236175537109375 47.81884765625 48.2337646484375 48.2337646484375 48.172149658203125 48.19217681884765625 48.41408538818359375 48.795276641845703125 49.20844268798828125 49.624889373779296875 50.07778167724609375 50.577220916748046875 51.03887176513671875 51.497455596923828125 52.1460113525390625 53.25801849365234375 54.44768524169921875 55.17751312255859375 54.58675384521484375 54.701663970947265625 55.166416168212890625 55.6247711181640625 56.004974365234375 56.078411102294921875 56.24286651611328125 56.930599212646484375 57.486095428466796875 57.337314605712890625 56.92842864990234375 56.535655975341796875 56.21688079833984375 56.361175537109375 56.851154327392578125 57.148281097412109375 57.611759185791015625 57.91815948486328125 57.9730072021484375 57.96582794189453125 57.955272674560546875 57.92742156982421875 57.8496551513671875 57.73000335693359375 57.424671173095703125 56.928188323974609375 56.45864105224609375 56.08867645263671875 55.811916351318359375 55.95349884033203125 56.179874420166015625 56.020908355712890625 55.519603729248046875 54.685802459716796875 53.680877685546875 53.230197906494140625 53.1419830322265625 53.13114166259765625 53.124706268310546875 53.12430572509765625 53.1200103759765625 53.114410400390625 53.285068511962890625 53.67798614501953125 54.13051605224609375 53.811267852783203125 53.315425872802734375 52.75333404541015625 52.18780517578125 51.928714752197265625 51.923755645751953125
56.367122650146484375 56.064777374267578125 55.79529571533203125 55.9019775390625 56.445903778076171875 57.02684783935546875 57.667194366455078125 58.28034210205078125 58.850677490234375 59.42108917236328125 60.04236602783203125 61.02677154541015625 60.96932220458984375 59.653263092041015625 58.3290557861328125 57.039020538330078125 56.102809906005859375 55.68316650390625 55.4103240966796875 55.026714324951171875 54.582782745361328125 54.307140350341796875 54.26497650146484375 54.32598114013671875 54.561389923095703125 54.807582855224609375 54.805889129638671875 54.6668548583984375 54.2614898681640625 54.05118560791015625 53.860324859619140625 53.658878326416015625 53.385189056396484375 52.95719146728515625 52.4674530029296875 51.922821044921875 51.395359039306640625 50.96623992919921875 49.58635711669921875 48.7245025634765625 48.919219970703125 49.5887298583984375 50.063995361328125 50.265834808349609375 50.112583160400390625 49.8685455322265625 49.655040740966796875 49.433658599853515625 49.33620452880859375 49.535549163818359375 49.87924957275390625 50.329868316650390625 50.775539398193359375 50.99019622802734375 51.00908660888671875 50.945770263671875 50.8349151611328125 49.72267913818359375 49.163303375244140625 48.496967315673828125 47.810214996337890625 47.200653076171875 47.035526275634765625 47.210575103759765625 47.39121246337890625 47.581531524658203125 47.69335174560546875 47.732402801513671875 47.861309051513671875 48.2332611083984375 48.68099212646484375 48.88347625732421875 48.42950439453125 48.656078338623046875 49.129718780517578125 49.617893218994140625 50.12151336669921875 50.637813568115234375 51.173648834228515625 51.710475921630859375 52.150295257568359375 52.9439544677734375 54.23670196533203125 55.320224761962890625 55.944225311279296875 56.3922119140625 55.697986602783203125 56.105960845947265625 56.450580596923828125 56.817291259765625 56.793853759765625 56.90244293212890625 57.52315521240234375 57.909198760986328125 57.659877777099609375 57.224945068359375 56.791515350341796875 56.437625885009765625 56.597904205322265625 57.152645111083984375 57.677211761474609375 57.852596282958984375 58.22052764892578125 58.278697967529296875 58.214275360107421875 58.115665435791015625 57.976032257080078125 57.812839508056640625 57.617382049560546875 57.33361053466796875 56.83893585205078125 56.349090576171875 55.931377410888671875 55.598590850830078125 55.397815704345703125 55.716800689697265625 55.349018096923828125 55.002689361572265625 54.20703125 53.3433990478515625 52.957355499267578125 52.87725067138671875 52.872589111328125 52.898021697998046875 52.945400238037109375 52.968902587890625 52.965412139892578125 53.103359222412109375 53.445178985595703125 53.62933349609375 53.58753204345703125 53.131072998046875 52.66698455810546875 52.209232330322265625 51.983295440673828125 51.946704864501953125 52.039531707763671875
56.43726348876953125 56.234954833984375 56.175678253173828125 56.41048431396484375 56.7648468017578125 57.149616241455078125 57.780681610107421875 58.355884552001953125 58.835483551025390625 59.280094146728515625 59.623931884765625 60.092296600341796875 60.1725006103515625 59.623931884765625 58.3541717529296875 57.11942291259765625 56.153553009033203125 55.64615631103515625 55.260890960693359375 54.800189971923828125 54.293338775634765625 53.970882415771484375 53.9157257080078125 53.9952392578125 54.294612884521484375 54.634044647216796875 54.73333740234375 54.68070220947265625 54.56797027587890625 54.461032867431640625 54.28585052490234375 53.994533538818359375 53.592132568359375 52.989688873291015625 52.291141510009765625 51.543140411376953125 50.966518402099609375 50.416896820068359375 48.8969268798828125 48.05318450927734375 48.46820831298828125 49.231044769287109375 50.063995361328125 50.437839508056640625 50.493953704833984375 50.36907958984375 50.25360107421875 50.162425994873046875 50.096363067626953125 50.226108551025390625 50.47582244873046875 50.855499267578125 51.275478363037109375 51.444789886474609375 51.451381683349609375 51.402713775634765625 51.344913482666015625 50.574504852294921875 49.92604827880859375 49.028644561767578125 48.119293212890625 47.3155517578125 47.12917327880859375 47.41922760009765625 47.713451385498046875 48.0293121337890625 48.124141693115234375 48.185497283935546875 48.364086151123046875 48.722232818603515625 49.1846160888671875 49.401645660400390625 48.916889190673828125 49.145717620849609375 49.60882568359375 50.1194000244140625 50.65229034423828125 51.194286346435546875 51.677398681640625 52.235614776611328125 52.858325958251953125 53.802516937255859375 55.03459930419921875 56.083759307861328125 56.709751129150390625 56.9217987060546875 56.611385345458984375 56.984081268310546875 57.2154388427734375 57.49872589111328125 57.364101409912109375 57.474575042724609375 58.01389312744140625 58.243572235107421875 57.957576751708984375 57.519725799560546875 57.08878326416015625 56.7258148193359375 56.9210357666015625 57.61318206787109375 58.2407379150390625 58.2836151123046875 58.774654388427734375 58.829738616943359375 58.660518646240234375 58.40293121337890625 58.0661773681640625 57.738559722900390625 57.431201934814453125 57.1323394775390625 56.486537933349609375 55.840450286865234375 55.393344879150390625 54.926448822021484375 54.53493499755859375 55.066654205322265625 54.62994384765625 54.208347320556640625 53.641025543212890625 52.9647979736328125 52.678081512451171875 52.60929107666015625 52.6116180419921875 52.7003936767578125 52.838214874267578125 52.9178009033203125 52.9220123291015625 53.012126922607421875 53.25759124755859375 53.403522491455078125 53.403564453125 53.019344329833984375 52.6709442138671875 52.3285980224609375 52.109241485595703125 52.002719879150390625 52.005435943603515625
57.13867950439453125 57.436756134033203125 57.685028076171875 57.8481292724609375 57.786182403564453125 57.576999664306640625 57.736873626708984375 58.004665374755859375 58.303680419921875 58.611614227294921875 58.677539825439453125 59.06821441650390625 59.2276763916015625 59.245601654052734375 58.170993804931640625 57.16100311279296875 56.30838775634765625 55.708530426025390625 55.205596923828125 54.653774261474609375 54.11751556396484375 53.698635101318359375 53.61437225341796875 53.68389129638671875 53.997112274169921875 54.358707427978515625 54.394161224365234375 54.368801116943359375 54.635951995849609375 54.595653533935546875 54.443584442138671875 54.12332916259765625 53.6656951904296875 52.983242034912109375 52.183513641357421875 51.409465789794921875 50.75555419921875 50.08139801025390625 48.66925811767578125 47.917957305908203125 48.3707275390625 49.131534576416015625 49.92706298828125 50.540653228759765625 50.76363372802734375 50.72725677490234375 50.699337005615234375 50.671627044677734375 50.668239593505859375 50.715953826904296875 50.82942962646484375 51.142337799072265625 51.50177001953125 51.641597747802734375 51.587162017822265625 51.50750732421875 51.416156768798828125 51.076625823974609375 50.413501739501953125 49.417224884033203125 48.226226806640625 47.329986572265625 47.17621612548828125 47.53966522216796875 47.9781951904296875 48.36496734619140625 48.622158050537109375 48.745574951171875 48.86136627197265625 49.14061737060546875 49.492938995361328125 49.401645660400390625 49.421642303466796875 49.636074066162109375 50.071033477783203125 50.558502197265625 51.06020355224609375 51.550994873046875 52.00360870361328125 52.525516510009765625 53.27616119384765625 54.17529296875 55.3157806396484375 56.402812957763671875 57.147541046142578125 57.400142669677734375 57.090808868408203125 57.497966766357421875 57.96582794189453125 58.07671356201171875 57.90680694580078125 58.077648162841796875 58.434680938720703125 58.544330596923828125 58.236713409423828125 57.78382110595703125 57.35341644287109375 56.959014892578125 57.1436309814453125 57.89673614501953125 58.6246490478515625 59.0111846923828125 59.58052825927734375 59.565677642822265625 59.26566314697265625 58.778350830078125 58.19890594482421875 57.715251922607421875 57.36907196044921875 56.943294525146484375 56.004940032958984375 55.03665924072265625 54.552967071533203125 54.00565338134765625 53.5143585205078125 54.101490020751953125 53.66552734375 53.332683563232421875 52.926265716552734375 52.56737518310546875 52.386058807373046875 52.335529327392578125 52.34519195556640625 52.514583587646484375 52.7698516845703125 52.9129638671875 52.922000885009765625 52.970203399658203125 53.094692230224609375 53.1860809326171875 53.249561309814453125 52.9876861572265625 52.73946380615234375 52.5123748779296875 52.29528045654296875 52.081867218017578125 51.94258880615234375
58.078479766845703125 58.567485809326171875 59.162563323974609375 59.16584014892578125 58.724842071533203125 58.0969390869140625 57.675556182861328125 57.342281341552734375 57.3521270751953125 57.54187774658203125 57.79933929443359375 58.22226715087890625 58.3912200927734375 58.63901519775390625 57.734760284423828125 56.9961700439453125 56.49677276611328125 55.8819122314453125 55.264156341552734375 54.68950653076171875 54.0352783203125 53.28501129150390625 53.0905303955078125 53.19466400146484375 53.562503814697265625 53.92911529541015625 53.94020843505859375 53.91757965087890625 54.3436279296875 54.333255767822265625 54.219051361083984375 53.93665313720703125 53.53838348388671875 52.89789581298828125 52.159458160400390625 51.440765380859375 50.77007293701171875 50.11646270751953125 48.776458740234375 48.04712677001953125 48.51782989501953125 49.2427978515625 49.898654937744140625 50.596088409423828125 50.904270172119140625 50.907077789306640625 50.907711029052734375 50.909633636474609375 50.9134368896484375 50.918060302734375 50.95858001708984375 51.18187713623046875 51.4568939208984375 51.4992218017578125 51.34783172607421875 51.172710418701171875 51.005123138427734375 51.156848907470703125 50.52762603759765625 49.53998565673828125 48.230678558349609375 47.265430450439453125 47.092212677001953125 47.55548095703125 48.086513519287109375 48.644886016845703125 49.121280670166015625 49.265201568603515625 49.23027801513671875 49.34090423583984375 49.528171539306640625 49.67845916748046875 49.74600982666015625 49.971622467041015625 50.39124298095703125 50.83990478515625 51.294208526611328125 51.735919952392578125 52.194797515869140625 52.67142486572265625 53.331104278564453125 54.16943359375 55.274089813232421875 56.38394927978515625 57.18480682373046875 57.446773529052734375 57.48043060302734375 57.867557525634765625 58.2996826171875 58.50437164306640625 58.596446990966796875 58.698398590087890625 58.83596038818359375 58.83263397216796875 58.481884002685546875 57.984592437744140625 57.47808837890625 57.043384552001953125 57.136993408203125 57.816959381103515625 58.52169036865234375 59.458019256591796875 60.0722503662109375 59.923526763916015625 59.371768951416015625 58.924869537353515625 58.526744842529296875 57.859516143798828125 57.280948638916015625 56.465297698974609375 55.473827362060546875 54.233386993408203125 53.72701263427734375 53.30178070068359375 52.8212890625 53.066318511962890625 52.72467041015625 52.55606842041015625 52.33904266357421875 52.20247650146484375 52.105194091796875 52.067401885986328125 52.0796051025390625 52.305568695068359375 52.652584075927734375 52.856822967529296875 52.868267059326171875 52.880512237548828125 52.919544219970703125 52.948772430419921875 53.099346160888671875 52.96410369873046875 52.843227386474609375 52.732044219970703125 52.548069000244140625 52.248046875 51.966190338134765625
58.73854827880859375 59.284656524658203125 60.084980010986328125 60.204532623291015625 59.4488525390625 58.59790802001953125 57.7661895751953125 57.089878082275390625 56.762683868408203125 56.798740386962890625 56.914844512939453125 56.99249267578125 57.2378082275390625 57.933261871337890625 57.14107513427734375 56.7790374755859375 56.59333038330078125 56.085414886474609375 55.420001983642578125 54.8947296142578125 53.969818115234375 52.732425689697265625 52.4515838623046875 52.58409881591796875 52.980625152587890625 53.45198822021484375 53.41696929931640625 53.4010162353515625 53.85693359375 53.664394378662109375 53.5333251953125 53.388797760009765625 53.198360443115234375 52.7211761474609375 52.153781890869140625 51.562191009521484375 50.962589263916015625 50.336483001708984375 49.42864227294921875 48.705112457275390625 48.960338592529296875 49.537403106689453125 49.975574493408203125 50.62450408935546875 50.9204559326171875 50.923999786376953125 50.923999786376953125 50.923999786376953125 50.923999786376953125 50.923999786376953125 50.953914642333984375 51.086086273193359375 51.2501220703125 51.163898468017578125 50.890041351318359375 50.613826751708984375 50.45659637451171875 50.821743011474609375 50.237056732177734375 49.3335723876953125 48.141819000244140625 47.0409393310546875 46.843631744384765625 47.4750518798828125 48.140583038330078125 48.9199066162109375 49.64148712158203125 49.732440948486328125 49.526439666748046875 49.43712615966796875 49.403469085693359375 49.67200469970703125 49.819515228271484375 50.07747650146484375 50.491443634033203125 50.936481475830078125 51.3853302001953125 51.82213592529296875 52.271221160888671875 52.722064971923828125 53.289325714111328125 54.08466339111328125 55.026721954345703125 56.084888458251953125 56.860279083251953125 57.258514404296875 57.6006011962890625 57.9439697265625 58.380840301513671875 58.6570281982421875 58.7980194091796875 58.942348480224609375 59.07758331298828125 59.088886260986328125 58.688114166259765625 58.097583770751953125 57.510692596435546875 56.944927215576171875 56.874286651611328125 57.361125946044921875 58.52169036865234375 59.1894378662109375 59.634082794189453125 59.3094024658203125 58.775177001953125 58.38465118408203125 57.989429473876953125 57.295543670654296875 56.539157867431640625 55.743679046630859375 54.81280517578125 53.75028228759765625 53.129608154296875 52.7760009765625 52.529296875 52.442424774169921875 52.234165191650390625 52.106670379638671875 52.01080322265625 51.9228973388671875 51.83904266357421875 51.79982757568359375 51.81099700927734375 52.054958343505859375 52.453090667724609375 52.699626922607421875 52.712978363037109375 52.70632171630859375 52.70355224609375 52.71115875244140625 52.941516876220703125 52.928668975830078125 52.945697784423828125 52.98851776123046875 52.88278961181640625 52.5198822021484375 52.162689208984375
59.325466156005859375 59.927371978759765625 60.571521759033203125 61.013614654541015625 60.12313079833984375 59.109363555908203125 58.13488006591796875 57.2448883056640625 56.8863983154296875 56.759937286376953125 56.681873321533203125 56.62145233154296875 56.43032073974609375 56.98706817626953125 56.57309722900390625 56.462940216064453125 56.438629150390625 56.05974578857421875 55.543304443359375 54.973590850830078125 53.765682220458984375 52.320201873779296875 52.130527496337890625 52.13382720947265625 52.3679962158203125 52.992214202880859375 52.993083953857421875 53.00762939453125 53.517368316650390625 53.13775634765625 52.864185333251953125 52.54637908935546875 52.443042755126953125 52.155414581298828125 51.8485260009765625 51.503513336181640625 51.0226287841796875 50.46189117431640625 49.83032989501953125 49.432514190673828125 49.5936279296875 49.933628082275390625 50.1324310302734375 50.670978546142578125 50.9253387451171875 50.93254852294921875 50.934909820556640625 50.93753814697265625 50.937526702880859375 50.93405914306640625 50.937107086181640625 50.977588653564453125 51.02564239501953125 50.862476348876953125 50.50583648681640625 50.14870452880859375 49.79644012451171875 50.112079620361328125 49.534626007080078125 48.896938323974609375 48.0566558837890625 46.8828582763671875 46.7642974853515625 47.420513153076171875 48.270236968994140625 49.277820587158203125 50.119632720947265625 50.143032073974609375 49.81665802001953125 49.5572662353515625 49.34717559814453125 49.484035491943359375 49.72369384765625 50.044895172119140625 50.471439361572265625 50.915538787841796875 51.3647003173828125 51.801513671875 52.25026702880859375 52.693294525146484375 53.2011260986328125 53.763031005859375 54.6783599853515625 55.630428314208984375 56.354564666748046875 56.76847076416015625 57.444614410400390625 57.77213287353515625 58.199737548828125 58.53185272216796875 58.760051727294921875 58.9676361083984375 59.266017913818359375 59.32517242431640625 58.8842620849609375 58.168186187744140625 57.44985198974609375 56.7410888671875 56.487262725830078125 56.6930694580078125 57.885967254638671875 58.2828216552734375 58.461536407470703125 57.894046783447265625 57.2434844970703125 57.051483154296875 56.63191986083984375 55.9088592529296875 55.385471343994140625 54.767871856689453125 53.98244476318359375 53.11347198486328125 52.643573760986328125 52.426502227783203125 52.37726593017578125 52.356571197509765625 52.202983856201171875 52.053859710693359375 51.907207489013671875 51.739513397216796875 51.59064483642578125 51.526210784912109375 51.529399871826171875 51.766986846923828125 52.1843109130859375 52.45133209228515625 52.465404510498046875 52.449985504150390625 52.433200836181640625 52.442531585693359375 52.773746490478515625 52.883148193359375 53.05970001220703125 53.31310272216796875 53.28807830810546875 52.71773529052734375 52.20110321044921875
59.649639129638671875 60.5835723876953125 61.3498382568359375 61.589038848876953125 60.79813385009765625 59.826770782470703125 58.882236480712890625 57.972965240478515625 57.63123321533203125 57.382656097412109375 57.21120452880859375 56.757457733154296875 56.313373565673828125 56.21024322509765625 55.979167938232421875 56.06353759765625 56.26342010498046875 56.04132843017578125 55.528621673583984375 54.732624053955078125 53.284420013427734375 52.373600006103515625 52.09265899658203125 51.981822967529296875 51.95778656005859375 52.489696502685546875 52.837703704833984375 52.9169158935546875 53.218780517578125 52.758495330810546875 52.188175201416015625 51.55438995361328125 51.408031463623046875 51.36736297607421875 51.293033599853515625 51.16564178466796875 50.8994903564453125 50.517986297607421875 50.08074951171875 50.201740264892578125 50.393657684326171875 50.521701812744140625 50.36733245849609375 50.7938995361328125 51.017421722412109375 51.032459259033203125 51.04016876220703125 51.048191070556640625 51.04299163818359375 51.00366973876953125 50.944828033447265625 50.887725830078125 50.82659149169921875 50.614360809326171875 50.266483306884765625 49.944911956787109375 49.698368072509765625 49.46389007568359375 48.98729705810546875 48.745471954345703125 48.461414337158203125 47.71645355224609375 47.642139434814453125 48.32405853271484375 49.0241546630859375 49.7875823974609375 50.4804534912109375 50.486480712890625 50.103633880615234375 49.772205352783203125 49.4576873779296875 49.409942626953125 49.70694732666015625 50.093944549560546875 50.518268585205078125 50.96732330322265625 51.40576934814453125 51.838153839111328125 52.282238006591796875 52.722568511962890625 53.199848175048828125 53.682491302490234375 54.344997406005859375 55.27056884765625 55.9570770263671875 56.41555023193359375 57.077472686767578125 57.45561981201171875 57.871856689453125 58.26428985595703125 58.60276031494140625 58.94751739501953125 59.271022796630859375 59.43152618408203125 59.0264892578125 58.252750396728515625 57.514690399169921875 56.7832489013671875 56.42366790771484375 56.412570953369140625 57.00572967529296875 57.272899627685546875 57.274707794189453125 56.67763519287109375 56.018646240234375 55.79497528076171875 55.11025238037109375 54.4326324462890625 54.1489715576171875 53.739894866943359375 53.16228485107421875 52.5627899169921875 52.30210113525390625 52.24315643310546875 52.342723846435546875 52.44118499755859375 52.3962249755859375 52.159633636474609375 51.90467071533203125 51.6117401123046875 51.353862762451171875 51.261165618896484375 51.272747039794921875 51.50553131103515625 51.915142059326171875 52.1875457763671875 52.210231781005859375 52.201446533203125 52.19287872314453125 52.442531585693359375 52.586856842041015625 52.815578460693359375 53.17842864990234375 53.6633148193359375 53.849155426025390625 53.37067413330078125 52.80411529541015625
60.76958465576171875 61.462589263916015625 61.94073486328125 61.827671051025390625 61.35309600830078125 60.6524505615234375 59.86663818359375 59.051563262939453125 58.38118743896484375 58.28557586669921875 57.844127655029296875 57.375118255615234375 56.653118133544921875 55.90241241455078125 55.557857513427734375 55.525211334228515625 55.6779937744140625 55.602558135986328125 55.09644317626953125 54.156280517578125 53.11812591552734375 52.531154632568359375 52.228511810302734375 51.980693817138671875 51.671207427978515625 51.489925384521484375 51.7374267578125 52.9169158935546875 52.67603302001953125 52.16637420654296875 51.324481964111328125 50.535831451416015625 50.36578369140625 50.570163726806640625 50.70465850830078125 50.6362152099609375 50.50884246826171875 50.453029632568359375 50.382297515869140625 50.814823150634765625 51.15948486328125 51.1584625244140625 50.715755462646484375 51.034748077392578125 51.2201080322265625 51.239105224609375 51.24814605712890625 51.25946807861328125 51.24367523193359375 51.135650634765625 50.97149658203125 50.8105926513671875 50.631114959716796875 50.40518951416015625 50.137279510498046875 49.9270172119140625 49.845844268798828125 49.4211273193359375 49.27297210693359375 49.711822509765625 50.312961578369140625 50.56070709228515625 50.468097686767578125 50.4052276611328125 50.364025115966796875 50.3773956298828125 50.694293975830078125 50.671051025390625 50.367061614990234375 50.07854461669921875 49.814815521240234375 49.457874298095703125 49.854862213134765625 50.30204010009765625 50.76999664306640625 51.226276397705078125 51.625522613525390625 52.004291534423828125 52.421489715576171875 52.861309051513671875 53.31545257568359375 53.771320343017578125 54.327945709228515625 55.077579498291015625 55.7560577392578125 56.210170745849609375 56.771099090576171875 57.142520904541015625 57.510990142822265625 57.86606597900390625 58.23089599609375 58.629791259765625 59.107028961181640625 59.404376983642578125 59.0296173095703125 58.380893707275390625 57.763202667236328125 57.130741119384765625 56.70534515380859375 56.67517852783203125 56.565929412841796875 56.8988037109375 57.002689361572265625 56.318614959716796875 55.561176300048828125 54.939250946044921875 54.313358306884765625 53.639293670654296875 53.400798797607421875 53.195903778076171875 52.7932891845703125 52.33974456787109375 52.1998748779296875 52.247035980224609375 52.48650360107421875 52.606121063232421875 52.6699981689453125 52.413177490234375 52.067165374755859375 51.7088165283203125 51.378765106201171875 51.270824432373046875 51.28095245361328125 51.4705352783203125 51.819240570068359375 52.06542205810546875 52.100986480712890625 52.1012420654296875 52.10193634033203125 52.215839385986328125 52.435619354248046875 52.788204193115234375 53.290142059326171875 53.97287750244140625 54.384929656982421875 54.247035980224609375 54.05123138427734375
62.215301513671875 62.4741363525390625 62.401187896728515625 61.98390960693359375 61.69795989990234375 61.430507659912109375 61.000347137451171875 60.4445953369140625 59.757419586181640625 59.138713836669921875 58.425945281982421875 57.595279693603515625 56.72631072998046875 55.9892578125 55.374897003173828125 54.94771575927734375 54.712596893310546875 54.432788848876953125 54.072788238525390625 53.478168487548828125 52.953891754150390625 52.632663726806640625 52.31395721435546875 51.97020721435546875 51.474666595458984375 50.88913726806640625 50.649440765380859375 51.849613189697265625 51.494243621826171875 51.04067230224609375 50.302448272705078125 49.660675048828125 49.615459442138671875 49.936145782470703125 50.129741668701171875 50.0253753662109375 50.056793212890625 50.297939300537109375 50.6764984130859375 51.208911895751953125 51.607624053955078125 51.617862701416015625 51.17678070068359375 51.33361053466796875 51.461299896240234375 51.4878387451171875 51.50629425048828125 51.52288818359375 51.495296478271484375 51.307964324951171875 51.027576446533203125 50.743839263916015625 50.452106475830078125 50.211444854736328125 50.037967681884765625 49.98409271240234375 50.121967315673828125 49.811206817626953125 50.08280181884765625 51.02529144287109375 51.768115997314453125 52.580883026123046875 52.637477874755859375 52.243923187255859375 51.689800262451171875 51.064731597900390625 50.80655670166015625 50.743865966796875 50.5581817626953125 50.38115692138671875 50.16485595703125 49.839923858642578125 50.1605377197265625 50.6177215576171875 51.1444549560546875 51.63159942626953125 51.99204254150390625 52.27072906494140625 52.638210296630859375 53.08367919921875 53.540409088134765625 53.98925018310546875 54.49568939208984375 55.111804962158203125 55.728687286376953125 56.075878143310546875 56.5058135986328125 56.80063629150390625 57.03627777099609375 57.15073394775390625 57.424571990966796875 57.8071441650390625 58.4276123046875 58.954868316650390625 58.879039764404296875 58.494556427001953125 58.1735687255859375 57.8404998779296875 57.518436431884765625 57.405277252197265625 56.709930419921875 56.83585357666015625 56.859706878662109375 56.358280181884765625 55.55954742431640625 54.866199493408203125 54.15262603759765625 53.618404388427734375 53.411281585693359375 53.20995330810546875 52.824802398681640625 52.421600341796875 52.390575408935546875 52.566516876220703125 52.89649200439453125 52.92476654052734375 53.08205413818359375 52.791080474853515625 52.3926544189453125 52.02398681640625 51.651813507080078125 51.484954833984375 51.55513763427734375 51.7482147216796875 52.00678253173828125 52.1768798828125 52.210643768310546875 52.219684600830078125 52.228885650634765625 52.13470458984375 52.39078521728515625 52.813690185546875 53.408168792724609375 54.18642425537109375 54.7245941162109375 54.850399017333984375 54.91493988037109375
63.509429931640625 63.36727142333984375 62.7248077392578125 62.094867706298828125 61.8810882568359375 61.86480712890625 61.760860443115234375 61.5898895263671875 60.923465728759765625 59.701152801513671875 58.562549591064453125 57.423778533935546875 56.47576141357421875 55.975543975830078125 55.24816131591796875 54.5027008056640625 53.831233978271484375 53.337398529052734375 53.0964508056640625 52.91280364990234375 52.7077484130859375 52.4896240234375 52.200420379638671875 51.849529266357421875 51.35401153564453125 50.753082275390625 50.390316009521484375 50.579608917236328125 50.376598358154296875 50.117584228515625 49.64286041259765625 49.3060150146484375 49.309783935546875 49.4304656982421875 49.342044830322265625 49.370868682861328125 49.699306488037109375 50.151096343994140625 50.797939300537109375 51.406154632568359375 51.71018218994140625 51.860118865966796875 51.665172576904296875 51.76563262939453125 51.83216094970703125 51.82799530029296875 51.81121826171875 51.814456939697265625 51.756549835205078125 51.486103057861328125 51.095836639404296875 50.673274993896484375 50.23761749267578125 49.933380126953125 49.8699493408203125 49.949771881103515625 50.121967315673828125 50.316692352294921875 50.865749359130859375 51.52457427978515625 52.12133026123046875 52.892208099365234375 53.041629791259765625 52.814319610595703125 52.439739227294921875 51.86728668212890625 51.487361907958984375 51.25478363037109375 51.129123687744140625 50.85323333740234375 50.59392547607421875 50.1750640869140625 50.51293182373046875 50.965785980224609375 51.539936065673828125 52.102237701416015625 52.4320220947265625 52.5935516357421875 52.895938873291015625 53.3414764404296875 53.791988372802734375 54.2489013671875 54.725254058837890625 55.263172149658203125 55.753582000732421875 55.999736785888671875 56.278095245361328125 56.4671478271484375 56.5444183349609375 56.3560638427734375 56.435413360595703125 56.6696014404296875 57.158847808837890625 57.945888519287109375 58.603694915771484375 58.592212677001953125 58.6087799072265625 58.660701751708984375 58.478038787841796875 58.2824859619140625 57.267841339111328125 57.155017852783203125 56.920475006103515625 56.435688018798828125 55.75591278076171875 55.120876312255859375 54.614688873291015625 54.119510650634765625 53.8125152587890625 53.527645111083984375 53.100677490234375 52.724758148193359375 52.736530303955078125 53.036212921142578125 53.3985595703125 53.37683868408203125 53.5697784423828125 53.254566192626953125 52.743633270263671875 52.391674041748046875 52.05454254150390625 51.99715423583984375 52.11040496826171875 52.24089813232421875 52.414501190185546875 52.43691253662109375 52.4486083984375 52.463253021240234375 52.47893524169921875 52.261383056640625 52.536144256591796875 52.984531402587890625 53.565151214599609375 54.302852630615234375 54.82245635986328125 54.922000885009765625 54.98322296142578125
64.29395294189453125 63.689098358154296875 62.853271484375 62.1375732421875 61.9290008544921875 61.9290008544921875 61.9290008544921875 61.92169189453125 61.269443511962890625 59.82564544677734375 58.420253753662109375 56.95923614501953125 56.07064056396484375 55.852840423583984375 55.180889129638671875 54.439472198486328125 53.70430755615234375 53.180843353271484375 52.86405181884765625 52.57407379150390625 52.280879974365234375 52.022369384765625 51.770931243896484375 51.58431243896484375 51.312351226806640625 50.93314361572265625 50.670257568359375 50.326717376708984375 50.12879180908203125 49.660858154296875 49.190235137939453125 48.998645782470703125 48.991329193115234375 48.99456024169921875 48.9591522216796875 49.1222686767578125 49.524356842041015625 50.046051025390625 50.735050201416015625 51.407863616943359375 51.833126068115234375 52.121685028076171875 52.10369873046875 52.326519012451171875 52.37602996826171875 52.3117523193359375 52.212772369384765625 52.160430908203125 52.038745880126953125 51.67339324951171875 51.165287017822265625 50.588123321533203125 49.94738006591796875 49.573421478271484375 49.5779266357421875 49.7699432373046875 50.25736236572265625 50.654087066650390625 51.01384735107421875 51.3278961181640625 51.6695556640625 52.016204833984375 52.252452850341796875 52.358104705810546875 52.562366485595703125 52.672576904296875 52.74486541748046875 52.47369384765625 52.168254852294921875 51.597423553466796875 51.260837554931640625 50.6221466064453125 50.99346160888671875 51.467433929443359375 52.012149810791015625 52.582630157470703125 52.822605133056640625 52.898944854736328125 53.151470184326171875 53.5881805419921875 54.0421905517578125 54.496921539306640625 54.956188201904296875 55.439899444580078125 55.8649749755859375 55.98895263671875 56.067745208740234375 56.1162261962890625 56.080448150634765625 55.660373687744140625 55.475696563720703125 55.5626220703125 55.957134246826171875 56.733417510986328125 57.548740386962890625 58.247745513916015625 58.676544189453125 59.015399932861328125 59.14443206787109375 58.939495086669921875 57.98429107666015625 57.644866943359375 57.13114166259765625 56.580379486083984375 56.044597625732421875 55.6194915771484375 55.2128753662109375 54.828922271728515625 54.460147857666015625 53.965778350830078125 53.5109100341796875 53.073139190673828125 53.10460662841796875 53.43340301513671875 53.874134063720703125 53.79935455322265625 53.978282928466796875 53.757595062255859375 53.159435272216796875 52.791717529296875 52.512462615966796875 52.646244049072265625 52.7837982177734375 52.825031280517578125 52.886989593505859375 52.753376007080078125 52.724575042724609375 52.735042572021484375 52.74048614501953125 52.517253875732421875 52.782802581787109375 53.23766326904296875 53.757717132568359375 54.375209808349609375 54.823192596435546875 54.922000885009765625 54.974029541015625
64.3167724609375 63.744903564453125 62.902496337890625 62.160369873046875 61.9290008544921875 61.9290008544921875 61.9290008544921875 61.926074981689453125 61.296703338623046875 59.640399932861328125 58.14722442626953125 56.4670562744140625 55.6496734619140625 55.688625335693359375 55.18572235107421875 54.53194427490234375 53.89371490478515625 53.327022552490234375 52.810047149658203125 52.288082122802734375 51.638538360595703125 51.14446258544921875 51.105747222900390625 51.228992462158203125 51.260868072509765625 51.25885009765625 51.159526824951171875 50.492168426513671875 50.19174957275390625 49.642505645751953125 49.108455657958984375 48.925998687744140625 48.925998687744140625 48.925998687744140625 48.92638397216796875 49.097332000732421875 49.496990203857421875 49.98157501220703125 50.589397430419921875 51.19937896728515625 51.7458648681640625 52.281314849853515625 52.501739501953125 52.940097808837890625 53.047893524169921875 52.91240692138671875 52.7182769775390625 52.56226348876953125 52.351375579833984375 51.876796722412109375 51.23697662353515625 50.449596405029296875 49.603664398193359375 49.11409759521484375 49.176998138427734375 49.501953125 50.215145111083984375 50.743152618408203125 51.1438446044921875 51.439060211181640625 51.6684722900390625 51.834293365478515625 51.96314239501953125 52.0843353271484375 52.457454681396484375 53.37383270263671875 54.015899658203125 53.97055816650390625 53.49123382568359375 52.663177490234375 52.085254669189453125 51.18173980712890625 51.53122711181640625 52.013519287109375 52.483486175537109375 52.955142974853515625 53.15692901611328125 53.184986114501953125 53.406147003173828125 53.831783294677734375 54.29427337646484375 54.743663787841796875 55.204761505126953125 55.659427642822265625 56.055454254150390625 55.98895263671875 55.890140533447265625 55.775096893310546875 55.644989013671875 55.187931060791015625 54.749835968017578125 54.683406829833984375 55.044219970703125 55.66815185546875 56.3516082763671875 57.0978240966796875 57.882450103759765625 58.454875946044921875 58.933685302734375 58.86205291748046875 58.55298614501953125 58.019866943359375 57.403659820556640625 56.794254302978515625 56.413127899169921875 56.259765625 55.866703033447265625 55.5262603759765625 55.048648834228515625 54.398273468017578125 53.946323394775390625 53.424312591552734375 53.476512908935546875 53.791187286376953125 54.274051666259765625 54.21677398681640625 54.438472747802734375 54.4095916748046875 53.953800201416015625 53.596927642822265625 53.28456878662109375 53.39395904541015625 53.52851104736328125 53.5030517578125 53.32541656494140625 53.055080413818359375 52.992237091064453125 52.99797821044921875 52.96612548828125 52.758525848388671875 53.002368927001953125 53.44042205810546875 53.917949676513671875 54.43857574462890625 54.83135986328125 54.948482513427734375 55.021213531494140625
64.29904937744140625 63.729244232177734375 62.923725128173828125 62.18256378173828125 61.9290008544921875 61.9290008544921875 61.9290008544921875 61.9279937744140625 61.288135528564453125 59.50860595703125 57.93576812744140625 56.156429290771484375 55.230594635009765625 55.42554473876953125 55.121097564697265625 54.581256866455078125 54.06281280517578125 53.47757720947265625 52.7983551025390625 52.010494232177734375 51.171154022216796875 50.606960296630859375 50.59239959716796875 50.87398529052734375 51.1323394775390625 51.364498138427734375 51.40435791015625 50.903934478759765625 50.50943756103515625 49.8563079833984375 49.1949462890625 48.9342041015625 48.933910369873046875 48.93256378173828125 48.92938232421875 49.083827972412109375 49.4766387939453125 49.93892669677734375 50.452411651611328125 50.983325958251953125 51.607639312744140625 52.29622650146484375 52.841358184814453125 53.442287445068359375 53.711833953857421875 53.54250335693359375 53.2634124755859375 52.979217529296875 52.6507720947265625 52.073486328125 51.316692352294921875 50.31878662109375 49.30797576904296875 48.769771575927734375 48.835178375244140625 49.19803619384765625 49.97876739501953125 50.652866363525390625 51.02750396728515625 51.22727203369140625 51.28426361083984375 51.13311767578125 51.245830535888671875 51.78415679931640625 52.657146453857421875 53.877964019775390625 54.92099761962890625 54.99250030517578125 54.5576629638671875 53.890254974365234375 52.967288970947265625 51.77190399169921875 52.00127410888671875 52.4127349853515625 52.821323394775390625 53.24820709228515625 53.446743011474609375 53.46353912353515625 53.665302276611328125 54.097232818603515625 54.5574493408203125 55.013824462890625 55.469242095947265625 55.91538238525390625 56.317180633544921875 56.06468963623046875 55.761539459228515625 55.458766937255859375 55.211238861083984375 54.83461761474609375 54.37006378173828125 54.207263946533203125 54.42929840087890625 54.803676605224609375 55.349864959716796875 55.9557342529296875 56.713588714599609375 57.558780670166015625 58.202239990234375 58.37717437744140625 58.57879638671875 58.222686767578125 57.7499847412109375 57.160427093505859375 56.979732513427734375 57.05400848388671875 56.702789306640625 56.3429718017578125 55.558368682861328125 54.869998931884765625 54.327640533447265625 53.800628662109375 53.8354339599609375 54.218105316162109375 54.7347869873046875 54.728298187255859375 55.076206207275390625 55.146209716796875 54.823307037353515625 54.401233673095703125 54.114421844482421875 54.108432769775390625 54.169956207275390625 54.05367279052734375 53.68121337890625 53.338367462158203125 53.26879119873046875 53.266086578369140625 53.167938232421875 52.933437347412109375 53.13005828857421875 53.557125091552734375 54.008121490478515625 54.47177886962890625 54.840297698974609375 55.014644622802734375 55.1545257568359375
63.626220703125 62.887542724609375 62.18621063232421875 61.93572998046875 61.936267852783203125 61.9367828369140625 61.937046051025390625 61.27164459228515625 59.58707427978515625 57.698863983154296875 55.827770233154296875 54.887958526611328125 54.5245819091796875 54.829044342041015625 54.453197479248046875 54.03754425048828125 53.497447967529296875 52.75582122802734375 51.822116851806640625 50.94751739501953125 50.32410430908203125 50.268535614013671875 50.57398223876953125 50.882389068603515625 51.190410614013671875 51.27809906005859375 51.019199371337890625 50.673389434814453125 50.022552490234375 49.36775970458984375 49.087848663330078125 49.052455902099609375 49.0137786865234375 48.9653472900390625 49.073757171630859375 49.455783843994140625 49.904445648193359375 50.360858917236328125 50.836681365966796875 51.442760467529296875 51.442760467529296875 52.170375823974609375 53.006999969482421875 53.73647308349609375 54.118946075439453125 53.94623565673828125 53.577114105224609375 53.198299407958984375 52.77816009521484375 52.174182891845703125 51.425205230712890625 50.347492218017578125 49.256084442138671875 48.73902130126953125 48.76607513427734375 49.066493988037109375 49.847503662109375 50.711444854736328125 51.135585784912109375 51.230121612548828125 51.198028564453125 51.046985626220703125 51.120830535888671875 51.864284515380859375 53.00994873046875 54.07782745361328125 54.83989715576171875 54.97743988037109375 54.693767547607421875 54.437412261962890625 53.8775787353515625 52.385345458984375 52.40973663330078125 52.696002960205078125 53.052143096923828125 53.4752044677734375 53.68289947509765625 53.698822021484375 53.882740020751953125 54.27704620361328125 54.706501007080078125 55.14217376708984375 55.574039459228515625 56.037143707275390625 56.412067413330078125 56.214321136474609375 55.668697357177734375 55.158161163330078125 54.7492828369140625 54.349979400634765625 54.155345916748046875 54.050884246826171875 54.03887939453125 54.143047332763671875 54.62403106689453125 55.07891845703125 55.64600372314453125 56.614948272705078125 57.328075408935546875 57.712451934814453125 58.38738250732421875 58.258251190185546875 58.151123046875 57.932292938232421875 57.769283294677734375 57.820903778076171875 57.653865814208984375 57.039592742919921875 56.368602752685546875 55.552402496337890625 54.692962646484375 54.331317901611328125 54.307270050048828125 54.8340911865234375 54.7347869873046875 55.285312652587890625 55.753070831298828125 55.857799530029296875 55.70296478271484375 55.28299713134765625 54.915554046630859375 54.765369415283203125 54.65169525146484375 54.38394927978515625 53.954288482666015625 53.60323333740234375 53.522613525390625 53.5167694091796875 53.36495208740234375 53.044689178466796875 53.152126312255859375 53.570163726806640625 54.01085662841796875 54.461284637451171875 54.844051361083984375 55.095489501953125 55.337970733642578125
63.44007110595703125 62.7863311767578125 62.163116455078125 61.938999176025390625 61.938999176025390625 61.938999176025390625 61.938999176025390625 61.275821685791015625 59.60030364990234375 57.781101226806640625 56.0825042724609375 54.622295379638671875 54.5245819091796875 54.3343505859375 54.097515106201171875 53.804229736328125 53.366107940673828125 52.6750030517578125 51.784160614013671875 50.93955230712890625 50.271961212158203125 50.103343963623046875 50.33068084716796875 50.5633392333984375 50.8004302978515625 50.86757659912109375 50.686252593994140625 50.635051727294921875 50.161426544189453125 49.67426300048828125 49.419765472412109375 49.30506134033203125 49.18538665771484375 49.0433502197265625 49.0593414306640625 49.433887481689453125 49.878070831298828125 50.321964263916015625 50.765369415283203125 51.26610565185546875 51.855113983154296875 52.81018829345703125 53.721927642822265625 54.04633331298828125 53.84857177734375 53.477329254150390625 53.03775787353515625 52.58394622802734375 52.071033477783203125 51.534473419189453125 50.777065277099609375 49.771945953369140625 49.489635467529296875 49.980716705322265625 50.76325225830078125 52.34527587890625 51.579212188720703125 51.957759857177734375 51.728717803955078125 51.608386993408203125 51.2420501708984375 51.393329620361328125 52.340648651123046875 53.3762969970703125 54.0792694091796875 54.747875213623046875 54.934444427490234375 54.709377288818359375 54.4951324462890625 54.195270538330078125 54.041351318359375 52.899822235107421875 53.051494598388671875 53.332881927490234375 53.676105499267578125 53.851825714111328125 53.8626861572265625 53.994899749755859375 54.28340911865234375 54.628513336181640625 55.03014373779296875 55.473384857177734375 55.89931488037109375 56.273761749267578125 56.128719329833984375 55.584819793701171875 54.896518707275390625 54.139923095703125 53.50273895263671875 53.37288665771484375 53.544010162353515625 53.651142120361328125 53.779148101806640625 54.051849365234375 54.226726531982421875 54.783161163330078125 55.714832305908203125 56.540111541748046875 57.034214019775390625 57.44536590576171875 58.22994232177734375 58.392581939697265625 58.500087738037109375 58.43042755126953125 58.51776123046875 58.681324005126953125 58.420154571533203125 57.722980499267578125 57.722980499267578125 56.727703094482421875 55.649944305419921875 55.18216705322265625 55.360103607177734375 55.770908355712890625 55.359447479248046875 55.8631744384765625 56.3168487548828125 56.420383453369140625 56.400768280029296875 56.057971954345703125 55.623615264892578125 55.329753875732421875 55.066394805908203125 54.691219329833984375 54.271327972412109375 53.956180572509765625 53.885650634765625 53.9008331298828125 53.65085601806640625 53.10002899169921875 53.15032958984375 53.5489349365234375 53.9902801513671875 54.43482208251953125 54.857086181640625 55.219585418701171875 55.593387603759765625
63.232448577880859375 62.677394866943359375 62.1591796875 61.942249298095703125 61.939243316650390625 61.93476104736328125 61.930912017822265625 61.081630706787109375 59.1502685546875 57.64218902587890625 55.915882110595703125 54.28690338134765625 54.068363189697265625 53.837451934814453125 53.627025604248046875 53.44439697265625 53.13329315185546875 52.596172332763671875 51.86572265625 50.98604583740234375 50.318454742431640625 50.030303955078125 50.1385650634765625 50.25405120849609375 50.3609161376953125 50.3949737548828125 50.298553466796875 50.44400787353515625 50.234661102294921875 50.083034515380859375 49.89287567138671875 49.658939361572265625 49.421451568603515625 49.170867919921875 49.08539581298828125 49.4105682373046875 49.85732269287109375 50.3016815185546875 50.731014251708984375 51.0989532470703125 51.40230560302734375 52.2015838623046875 53.35900115966796875 53.535648345947265625 53.344024658203125 52.887775421142578125 52.412403106689453125 52.059200286865234375 51.80326080322265625 51.5812225341796875 51.32984161376953125 51.00939178466796875 51.35335540771484375 52.443401336669921875 53.79608154296875 55.049549102783203125 53.3694610595703125 53.639202117919921875 52.8630523681640625 52.648990631103515625 52.340362548828125 52.5820465087890625 53.19577789306640625 53.78894805908203125 54.088222503662109375 54.421611785888671875 54.5462646484375 54.52046966552734375 54.44506072998046875 54.478130340576171875 54.60607147216796875 53.627208709716796875 53.50768280029296875 53.64510345458984375 53.824413299560546875 53.921260833740234375 53.925975799560546875 53.97791290283203125 54.092906951904296875 54.261363983154296875 54.40819549560546875 54.729930877685546875 55.3019561767578125 55.83734893798828125 55.847049713134765625 55.47857666015625 54.7701416015625 54.0190582275390625 53.385746002197265625 53.12591552734375 53.065105438232421875 53.119464874267578125 53.33251190185546875 53.514678955078125 53.67668914794921875 53.96189117431640625 54.707752227783203125 55.73088836669921875 56.301319122314453125 56.750736236572265625 57.968776702880859375 58.4248809814453125 58.674938201904296875 58.77034759521484375 58.947071075439453125 59.32098388671875 59.47064971923828125 58.962741851806640625 58.074588775634765625 57.295764923095703125 56.80170440673828125 56.706817626953125 56.775638580322265625 57.125690460205078125 56.46712493896484375 56.700153350830078125 56.78241729736328125 56.77140045166015625 56.522594451904296875 56.10816192626953125 55.719486236572265625 55.434879302978515625 55.06951141357421875 54.76136016845703125 54.542537689208984375 54.507396697998046875 54.47295379638671875 54.02951812744140625 53.7375030517578125 53.3732147216796875 53.73967742919921875 54.194133758544921875 54.652618408203125 55.09925079345703125 55.520725250244140625 56.012187957763671875 56.711551666259765625
63.1374664306640625 62.66732025146484375 62.22054290771484375 62.003314971923828125 61.957324981689453125 61.89759063720703125 61.804286956787109375 60.555751800537109375 58.269771575927734375 56.763935089111328125 55.123035430908203125 53.8053131103515625 53.530727386474609375 53.30184173583984375 53.18811798095703125 53.121440887451171875 52.94858551025390625 52.516750335693359375 51.946506500244140625 51.030277252197265625 50.352664947509765625 49.971256256103515625 49.990535736083984375 50.04268646240234375 50.11844635009765625 50.16063690185546875 50.102359771728515625 50.213504791259765625 50.25804901123046875 50.35849761962890625 50.256748199462890625 49.931194305419921875 49.595226287841796875 49.21077728271484375 49.059680938720703125 49.348804473876953125 49.796314239501953125 50.248931884765625 50.693256378173828125 50.960994720458984375 51.04480743408203125 52.2015838623046875 52.691070556640625 52.799282073974609375 52.685985565185546875 52.130954742431640625 51.642681121826171875 51.395168304443359375 51.4304046630859375 51.549274444580078125 51.705291748046875 52.146968841552734375 52.96999359130859375 54.2096099853515625 55.5409698486328125 56.29538726806640625 55.40645599365234375 55.44235992431640625 54.69951629638671875 54.433605194091796875 54.10382080078125 53.91571807861328125 54.203441619873046875 54.2645416259765625 54.150661468505859375 53.919506072998046875 53.90850067138671875 54.011371612548828125 54.275371551513671875 54.69113922119140625 55.008197784423828125 54.4100189208984375 54.11975860595703125 54.00667572021484375 53.9510955810546875 53.92382049560546875 53.925998687744140625 53.896244049072265625 53.806232452392578125 53.602863311767578125 53.1049652099609375 53.371227264404296875 54.03745269775390625 55.064090728759765625 55.51378631591796875 55.330078125 54.7686309814453125 54.116237640380859375 53.525463104248046875 53.198482513427734375 52.97922515869140625 52.753711700439453125 52.706378936767578125 52.80054473876953125 53.07070159912109375 53.3405914306640625 53.889446258544921875 54.68383026123046875 55.33426666259765625 55.983509063720703125 57.43439483642578125 58.17238616943359375 58.593914031982421875 58.792240142822265625 59.018695831298828125 59.428318023681640625 59.783267974853515625 59.720745086669921875 59.277271270751953125 58.916473388671875 58.61346435546875 58.2730712890625 57.983882904052734375 57.963108062744140625 57.1116485595703125 56.936313629150390625 56.920505523681640625 56.901378631591796875 56.65326690673828125 56.228687286376953125 55.9071197509765625 55.768398284912109375 55.533893585205078125 55.4463653564453125 55.370464324951171875 55.3805389404296875 55.33655548095703125 54.720874786376953125 54.371738433837890625 53.886821746826171875 54.39597320556640625 55.036434173583984375 55.54717254638671875 56.074367523193359375 56.480518341064453125 56.8265380859375 57.264007568359375
63.23357391357421875 62.82854461669921875 62.4061279296875 62.154544830322265625 62.02307891845703125 61.838687896728515625 61.520679473876953125 59.713985443115234375 57.237091064453125 55.594364166259765625 53.9836273193359375 53.099414825439453125 52.945453643798828125 52.808101654052734375 52.830692291259765625 52.8964691162109375 52.84545135498046875 52.479198455810546875 51.972774505615234375 51.12934112548828125 50.377933502197265625 49.94773101806640625 49.9334869384765625 49.98070526123046875 50.11553192138671875 50.187744140625 50.110584259033203125 50.05265045166015625 50.18724822998046875 50.398609161376953125 50.3377532958984375 49.98868560791015625 49.60781097412109375 49.179721832275390625 48.93302154541015625 49.1782989501953125 49.633056640625 50.12430572509765625 50.63266754150390625 50.860198974609375 50.79671478271484375 51.4180145263671875 51.969390869140625 52.05756378173828125 52.010379791259765625 51.64987945556640625 51.158660888671875 50.902927398681640625 51.027500152587890625 51.422641754150390625 51.9102783203125 52.83496856689453125 53.8688201904296875 54.825847625732421875 55.713367462158203125 56.26027679443359375 56.626964569091796875 56.6595001220703125 56.291393280029296875 55.929309844970703125 55.487213134765625 55.015228271484375 54.765773773193359375 54.526622772216796875 54.0772552490234375 53.506206512451171875 53.38214111328125 53.5897979736328125 54.044788360595703125 54.7160186767578125 55.008197784423828125 54.989414215087890625 54.64382171630859375 54.3739013671875 54.163608551025390625 54.014942169189453125 53.966480255126953125 53.8434906005859375 53.566532135009765625 52.919307708740234375 52.160167694091796875 52.09680938720703125 52.557987213134765625 53.593593597412109375 54.876926422119140625 55.203189849853515625 54.78041839599609375 54.27874755859375 53.770496368408203125 53.387073516845703125 53.0416107177734375 52.546054840087890625 52.078472137451171875 51.975902557373046875 52.372314453125 52.781097412109375 53.1832427978515625 53.7754974365234375 54.358642578125 54.61888885498046875 56.656688690185546875 57.552829742431640625 58.23094940185546875 58.644954681396484375 58.973278045654296875 59.4031219482421875 59.78861236572265625 59.975399017333984375 60.069911956787109375 60.117145538330078125 60.149662017822265625 59.8450775146484375 59.265773773193359375 58.811737060546875 57.689754486083984375 57.107173919677734375 56.922000885009765625 56.906871795654296875 56.6703033447265625 56.248760223388671875 56.004001617431640625 56.03426361083984375 56.04095458984375 56.24019622802734375 56.340076446533203125 56.3955841064453125 56.39586639404296875 55.860233306884765625 55.365329742431640625 54.68802642822265625 55.51331329345703125 56.340770721435546875 57.098308563232421875 57.647014617919921875 57.800994873046875 57.730289459228515625 57.81095123291015625
63.45668792724609375 63.105922698974609375 62.686130523681640625 62.3666229248046875 62.1248931884765625 61.80902099609375 60.832340240478515625 58.641269683837890625 56.0909423828125 54.409992218017578125 52.828762054443359375 52.176738739013671875 52.35895538330078125 52.385433197021484375 52.55899810791015625 52.755847930908203125 52.804538726806640625 52.490962982177734375 51.99581146240234375 51.23133087158203125 50.40758514404296875 49.9518585205078125 49.930999755859375 49.99353790283203125 50.224369049072265625 50.380126953125 50.256664276123046875 49.991062164306640625 50.041522979736328125 50.155811309814453125 50.072021484375 49.784038543701171875 49.436443328857421875 48.982547760009765625 48.704769134521484375 48.920436859130859375 49.38483428955078125 49.933010101318359375 50.549869537353515625 50.778926849365234375 50.613193511962890625 50.85419464111328125 51.239910125732421875 51.303539276123046875 51.139980316162109375 51.017917633056640625 50.90187835693359375 50.72332000732421875 50.81015777587890625 51.37805938720703125 52.119174957275390625 53.16571044921875 54.1414337158203125 54.756252288818359375 55.054317474365234375 55.687854766845703125 56.778087615966796875 56.8780517578125 56.445384979248046875 56.03656005859375 55.540435791015625 55.089717864990234375 54.673931121826171875 54.37761688232421875 53.94480133056640625 53.138538360595703125 52.9028472900390625 53.241024017333984375 53.751155853271484375 54.454685211181640625 55.266757965087890625 55.240753173828125 54.923938751220703125 54.694248199462890625 54.5183258056640625 54.3513641357421875 54.1293487548828125 53.82230377197265625 53.224964141845703125 52.447536468505859375 51.684864044189453125 51.248332977294921875 50.927082061767578125 51.496906280517578125 52.9933624267578125 55.2322540283203125 54.644725799560546875 54.260101318359375 53.901653289794921875 53.5160675048828125 53.0850067138671875 52.484630584716796875 51.66471099853515625 51.313312530517578125 51.674365997314453125 52.127658843994140625 52.4523468017578125 52.674877166748046875 53.0884857177734375 53.272029876708984375 55.24332427978515625 56.291431427001953125 57.03221893310546875 57.938846588134765625 58.7022552490234375 59.267955780029296875 59.7687530517578125 60.14417266845703125 60.427242279052734375 60.712963104248046875 61.00267791748046875 60.852581024169921875 60.218906402587890625 59.44937896728515625 58.193241119384765625 57.30057525634765625 56.955837249755859375 56.96038818359375 56.765117645263671875 56.375637054443359375 56.23150634765625 56.405040740966796875 56.69152069091796875 56.986362457275390625 57.2390289306640625 57.3607635498046875 57.23867034912109375 57.097988128662109375 56.6421966552734375 55.704738616943359375 56.7864532470703125 57.748897552490234375 58.617099761962890625 59.1754608154296875 58.999797821044921875 58.54180908203125 58.302463531494140625
63.6668548583984375 63.3452606201171875 62.914257049560546875 62.515010833740234375 62.15274810791015625 61.53791046142578125 59.893772125244140625 57.60379791259765625 55.223728179931640625 53.346218109130859375 52.1462554931640625 51.632503509521484375 51.821186065673828125 52.031780242919921875 52.316501617431640625 52.617221832275390625 52.7733306884765625 52.506557464599609375 52.01491546630859375 51.29575347900390625 50.444488525390625 49.970050811767578125 49.94226837158203125 50.052227020263671875 50.361804962158203125 50.58713531494140625 50.42887115478515625 50.008365631103515625 49.85126495361328125 49.741458892822265625 49.593791961669921875 49.420810699462890625 49.160472869873046875 48.731296539306640625 48.44089508056640625 48.639080047607421875 49.10298919677734375 49.715900421142578125 50.445224761962890625 50.700016021728515625 50.4712371826171875 50.453952789306640625 50.4994049072265625 50.444278717041015625 50.303607940673828125 50.201190948486328125 50.3052520751953125 50.25400543212890625 50.48207855224609375 51.517269134521484375 52.6070556640625 53.682712554931640625 54.31742095947265625 54.50756072998046875 54.815074920654296875 55.4303436279296875 56.384716033935546875 56.62299346923828125 56.366970062255859375 55.976696014404296875 55.4542236328125 54.748622894287109375 54.250652313232421875 53.86096954345703125 53.32706451416015625 52.683258056640625 52.559894561767578125 52.91979217529296875 53.415191650390625 54.0059967041015625 55.029476165771484375 55.140499114990234375 54.994327545166015625 54.954372406005859375 55.006328582763671875 54.919437408447265625 54.481349945068359375 53.868709564208984375 53.004871368408203125 52.1430816650390625 51.641521453857421875 51.20134735107421875 50.54620361328125 50.06591033935546875 50.890308380126953125 54.320438385009765625 54.554241180419921875 54.0120086669921875 53.88672637939453125 53.58428192138671875 53.11832427978515625 52.54937744140625 51.592327117919921875 51.0509185791015625 51.111721038818359375 51.396392822265625 51.60101318359375 51.491916656494140625 51.7156219482421875 53.272029876708984375 53.770915985107421875 54.479656219482421875 55.42193603515625 56.41051483154296875 57.819225311279296875 58.75226593017578125 59.620418548583984375 60.138126373291015625 60.429412841796875 60.72081756591796875 61.0360870361328125 61.025707244873046875 60.394504547119140625 59.56227874755859375 58.5326995849609375 57.51456451416015625 57.13507080078125 57.2011260986328125 57.14756011962890625 56.97200775146484375 56.9971771240234375 57.208892822265625 57.405948638916015625 57.681854248046875 57.897705078125 58.021800994873046875 57.965190887451171875 57.847686767578125 57.566761016845703125 56.835308074951171875 57.84334564208984375 58.915637969970703125 59.592510223388671875 60.135684967041015625 59.768215179443359375 59.109996795654296875 58.7537689208984375
63.7236480712890625 63.420619964599609375 62.979831695556640625 62.51044464111328125 62.01195526123046875 60.94222259521484375 58.882053375244140625 56.525173187255859375 54.430965423583984375 52.61379241943359375 51.6138458251953125 51.047393798828125 51.449893951416015625 51.694408416748046875 52.04930877685546875 52.399936676025390625 52.609081268310546875 52.388671875 51.941898345947265625 51.294342041015625 50.524959564208984375 50.078617095947265625 50.04621124267578125 50.1621551513671875 50.47852325439453125 50.731472015380859375 50.5795745849609375 50.08223724365234375 49.768951416015625 49.47541046142578125 49.267047882080078125 49.1792144775390625 49.015727996826171875 48.64249420166015625 48.347606658935546875 48.53388214111328125 48.97020721435546875 49.578502655029296875 50.325450897216796875 50.604412078857421875 50.346797943115234375 50.163700103759765625 49.918720245361328125 49.691570281982421875 49.573612213134765625 49.45572662353515625 49.52010345458984375 49.3514251708984375 49.826839447021484375 51.31456756591796875 52.69972991943359375 53.730655670166015625 54.362430572509765625 54.711273193359375 54.977062225341796875 55.37176513671875 56.12674713134765625 56.513423919677734375 56.360507965087890625 55.907344818115234375 55.272502899169921875 54.2358856201171875 53.5185546875 53.053615570068359375 52.5869598388671875 52.313892364501953125 52.360637664794921875 52.72154998779296875 53.1700897216796875 53.648174285888671875 54.535350799560546875 54.78159332275390625 54.885898590087890625 55.1551361083984375 55.56855010986328125 55.59272003173828125 55.069034576416015625 54.1974945068359375 53.027416229248046875 51.9617919921875 51.6633758544921875 51.568828582763671875 50.736164093017578125 49.9698944091796875 49.93340301513671875 52.407512664794921875 53.605072021484375 53.752742767333984375 53.7882080078125 53.60198211669921875 53.175563812255859375 52.81961822509765625 51.86681365966796875 50.970882415771484375 50.763034820556640625 50.74990081787109375 50.7281036376953125 50.537158966064453125 50.71256256103515625 52.138134002685546875 52.49718475341796875 52.8526763916015625 53.923297882080078125 54.787567138671875 56.39404296875 57.79572296142578125 59.10945892333984375 59.986927032470703125 60.287250518798828125 60.483310699462890625 60.7136383056640625 60.639129638671875 60.1328277587890625 59.431339263916015625 58.6540985107421875 57.718738555908203125 57.426128387451171875 57.59320068359375 57.7322998046875 57.89890289306640625 58.132694244384765625 58.262462615966796875 58.195842742919921875 58.28900909423828125 58.370800018310546875 58.4152679443359375 58.42259979248046875 58.413242340087890625 58.371746063232421875 57.681568145751953125 58.48233795166015625 59.521549224853515625 60.198760986328125 60.349460601806640625 60.038059234619140625 59.4836273193359375 59.1887969970703125
-3.4028234663852885981e+38 -3.4028234663852885981e+38 -3.4028234663852885981e+38 -3.4028234663852885981e+38 -3.4028234663852885981e+38 -3.4028234663852885981e+38 -3.4028234663852885981e+38 -3.4028234663852885981e+38 -3.4028234663852885981e+38 -3.4028234663852885981e+38 -3.4028234663852885981e+38 -3.4028234663852885981e+38 51.21915435791015625 51.433406829833984375 51.74956512451171875 52.06719970703125 52.265621185302734375 52.105335235595703125 51.737766265869140625 51.24234771728515625 50.63836669921875 50.28687286376953125 50.25873565673828125 50.34404754638671875 50.595035552978515625 50.811779022216796875 50.701709747314453125 50.225250244140625 49.864208221435546875 49.483440399169921875 49.252521514892578125 49.222686767578125 49.13878631591796875 48.84583282470703125 48.592266082763671875 48.70501708984375 49.06980133056640625 49.572452545166015625 50.201206207275390625 50.4625396728515625 50.242252349853515625 49.964893341064453125 49.582550048828125 49.229045867919921875 49.038265228271484375 48.94461822509765625 48.788959503173828125 48.4200286865234375 48.90606689453125 50.6461944580078125 52.433177947998046875 53.445552825927734375 53.944461822509765625 54.351833343505859375 54.699951171875 54.982082366943359375 55.756740570068359375 56.15462493896484375 56.121707916259765625 55.635372161865234375 54.748546600341796875 53.466381072998046875 52.497089385986328125 52.182086944580078125 52.14353179931640625 52.1934967041015625 52.3712005615234375 52.7290802001953125 53.115703582763671875 53.504360198974609375 54.11540985107421875 54.456951141357421875 54.742374420166015625 55.20151519775390625 55.84590911865234375 55.920810699462890625 55.498226165771484375 54.82497406005859375 53.543430328369140625 51.935840606689453125 51.375030517578125 51.37120819091796875 51.204029083251953125 50.72348785400390625 50.35439300537109375 50.868000030517578125 52.186931610107421875 53.12409210205078125 53.61515045166015625 53.604328155517578125 53.279514312744140625 52.8782501220703125 52.081775665283203125 50.947589874267578125 50.4608612060546875 50.20284271240234375 49.965610504150390625 49.777797698974609375 49.821605682373046875 51.065670013427734375 51.39841461181640625 51.68111419677734375 52.62633514404296875 53.45352935791015625 54.847377777099609375 56.12232208251953125 57.644077301025390625 58.76894378662109375 59.4835662841796875 60.127193450927734375 60.3871002197265625 60.322902679443359375 60.06982421875 59.319561004638671875 58.6398468017578125 57.917491912841796875 57.79022979736328125 58.06333160400390625 58.362003326416015625 58.842433929443359375 59.2378997802734375 59.250797271728515625 58.9930267333984375 58.827236175537109375 58.754985809326171875 58.710357666015625 58.715351104736328125 58.8097076416015625 58.371746063232421875 58.430938720703125 58.814350128173828125 59.493408203125 59.909130096435546875 60.30693817138671875 60.238056182861328125 59.946613311767578125 59.724346160888671875
-3.4028234663852885981e+38 -3.4028234663852885981e+38 -3.4028234663852885981e+38 -3.4028234663852885981e+38 -3.4028234663852885981e+38 -3.4028234663852885981e+38 -3.4028234663852885981e+38 -3.4028234663852885981e+38 -3.4028234663852885981e+38 -3.4028234663852885981e+38 -3.4028234663852885981e+38 -3.4028234663852885981e+38 -3.4028234663852885981e+38 -3.4028234663852885981e+38 -3.4028234663852885981e+38 -3.4028234663852885981e+38 -3.4028234663852885981e+38 -3.4028234663852885981e+38 -3.4028234663852885981e+38 -3.4028234663852885981e+38 -3.4028234663852885981e+38 -3.4028234663852885981e+38 -3.4028234663852885981e+38 -3.4028234663852885981e+38 -3.4028234663852885981e+38 -3.4028234663852885981e+38 50.701709747314453125 50.41358184814453125 50.028087615966796875 49.51688385009765625 49.20068359375 49.14568328857421875 49.03766632080078125 48.93845367431640625 48.80265045166015625 49.0685272216796875 49.3363494873046875 49.673961639404296875 50.103199005126953125 50.331546783447265625 50.181560516357421875 49.896602630615234375 49.47521209716796875 49.062164306640625 48.80670166015625 48.633258819580078125 48.313465118408203125 47.8594970703125 48.010074615478515625 49.61913299560546875 51.2843170166015625 52.195568084716796875 52.600368499755859375 53.017330169677734375 53.396381378173828125 53.699558258056640625 55.09558868408203125 55.633129119873046875 55.5582275390625 54.818767547607421875 53.75131988525390625 52.43903350830078125 51.68807220458984375 51.765651702880859375 52.053730010986328125 52.3574066162109375 52.67215728759765625 52.9823455810546875 53.276378631591796875 53.55020904541015625 53.874713897705078125 54.2253875732421875 54.555240631103515625 55.033191680908203125 55.652313232421875 55.801021575927734375 55.501277923583984375 54.751430511474609375 53.846431732177734375 52.69948577880859375 51.72476959228515625 51.59133148193359375 51.30837249755859375 50.761150360107421875 50.498779296875 50.482341766357421875 51.296863555908203125 52.13177490234375 52.957317352294921875 53.1697845458984375 52.906497955322265625 52.496791839599609375 51.77062225341796875 50.694744110107421875 50.06354522705078125 49.7991485595703125 49.568332672119140625 49.394073486328125 49.409381866455078125 49.8697052001953125 50.152252197265625 50.35947418212890625 51.20905303955078125 52.33448028564453125 53.517032623291015625 53.9833526611328125 55.448871612548828125 56.662860870361328125 58.049602508544921875 59.4620819091796875 59.962100982666015625 59.8624725341796875 59.7968597412109375 59.062389373779296875 58.51816558837890625 57.927677154541015625 57.93445587158203125 58.321277618408203125 58.761241912841796875 59.31561279296875 59.793430328369140625 59.88140106201171875 59.693721771240234375 59.399654388427734375 59.185596466064453125 59.079341888427734375 59.0396270751953125 59.069149017333984375 58.99532318115234375 59.146244049072265625 59.43724822998046875 59.86583709716796875 60.32202911376953125 60.7523040771484375 60.82045745849609375 60.5485382080078125 60.068881988525390625
-3.4028234663852885981e+38 -3.4028234663852885981e+38 -3.4028234663852885981e+38 -3.4028234663852885981e+38 -3.4028234663852885981e+38 -3.4028234663852885981e+38 -3.4028234663852885981e+38 -3.4028234663852885981e+38 -3.4028234663852885981e+38 -3.4028234663852885981e+38 -3.4028234663852885981e+38 -3.4028234663852885981e+38 -3.4028234663852885981e+38 -3.4028234663852885981e+38 -3.4028234663852885981e+38 -3.4028234663852885981e+38 -3.4028234663852885981e+38 -3.4028234663852885981e+38 -3.4028234663852885981e+38 -3.4028234663852885981e+38 -3.4028234663852885981e+38 -3.4028234663852885981e+38 -3.4028234663852885981e+38 -3.4028234663852885981e+38 -3.4028234663852885981e+38 -3.4028234663852885981e+38 -3.4028234663852885981e+38 -3.4028234663852885981e+38 -3.4028234663852885981e+38 -3.4028234663852885981e+38 -3.4028234663852885981e+38 -3.4028234663852885981e+38 -3.4028234663852885981e+38 -3.4028234663852885981e+38 -3.4028234663852885981e+38 -3.4028234663852885981e+38 -3.4028234663852885981e+38 -3.4028234663852885981e+38 -3.4028234663852885981e+38 -3.4028234663852885981e+38 -3.4028234663852885981e+38 49.89282989501953125 49.498615264892578125 49.0721435546875 48.740169525146484375 48.449901580810546875 48.08028411865234375 47.62256622314453125 47.556804656982421875 48.457851409912109375 49.702266693115234375 50.393402099609375 51.05706787109375 51.25876617431640625 51.52327728271484375 51.72368621826171875 53.664875030517578125 54.089565277099609375 53.973644256591796875 53.181468963623046875 52.369686126708984375 51.32470703125 51.13916015625 51.5895233154296875 52.130809783935546875 52.677036285400390625 53.1399688720703125 53.386829376220703125 53.554718017578125 53.713848114013671875 53.821346282958984375 54.089694976806640625 54.34870147705078125 54.70157623291015625 55.275203704833984375 55.515491485595703125 55.097537994384765625 54.306201934814453125 53.706371307373046875 53.08290863037109375 52.52678680419921875 52.186313629150390625 51.78670501708984375 51.13140869140625 50.738399505615234375 50.913730621337890625 51.26120758056640625 51.263248443603515625 51.483280181884765625 51.31280517578125 50.979587554931640625 50.865814208984375 50.396087646484375 49.80745697021484375 49.545375823974609375 49.46612548828125 49.41696929931640625 49.397491455078125 49.404392242431640625 49.522830963134765625 49.627765655517578125 49.73387908935546875 50.32677459716796875 51.31127166748046875 52.35530853271484375 52.380168914794921875 53.450283050537109375 54.531848907470703125 56.411472320556640625 58.09972381591796875 59.10691070556640625 58.967411041259765625 59.018207550048828125 58.54083251953125 58.332302093505859375 57.71993255615234375 57.775791168212890625 58.258365631103515625 58.797191619873046875 59.519771575927734375 60.038761138916015625 60.18616485595703125 60.154491424560546875 60.011432647705078125 59.7487945556640625 59.53516387939453125 59.448192596435546875 59.290966033935546875 59.239139556884765625 59.52381134033203125 59.85263824462890625 60.177265167236328125 60.4780426025390625 60.758403778076171875 60.681529998779296875 60.12591552734375 59.564090728759765625
-3.4028234663852885981e+38 -3.4028234663852885981e+38 -3.4028234663852885981e+38 -3.4028234663852885981e+38 -3.4028234663852885981e+38 -3.4028234663852885981e+38 -3.4028234663852885981e+38 -3.4028234663852885981e+38 -3.4028234663852885981e+38 -3.4028234663852885981e+38 -3.4028234663852885981e+38 -3.4028234663852885981e+38 -3.4028234663852885981e+38 -3.4028234663852885981e+38 -3.4028234663852885981e+38 -3.4028234663852885981e+38 -3.4028234663852885981e+38 -3.4028234663852885981e+38 -3.4028234663852885981e+38 -3.4028234663852885981e+38 -3.4028234663852885981e+38 -3.4028234663852885981e+38 -3.4028234663852885981e+38 -3.4028234663852885981e+38 -3.4028234663852885981e+38 -3.4028234663852885981e+38 -3.4028234663852885981e+38 -3.4028234663852885981e+38 -3.4028234663852885981e+38 -3.4028234663852885981e+38 -3.4028234663852885981e+38 -3.4028234663852885981e+38 -3.4028234663852885981e+38 -3.4028234663852885981e+38 -3.4028234663852885981e+38 -3.4028234663852885981e+38 -3.4028234663852885981e+38 -3.4028234663852885981e+38 -3.4028234663852885981e+38 -3.4028234663852885981e+38 -3.4028234663852885981e+38 -3.4028234663852885981e+38 -3.4028234663852885981e+38 -3.4028234663852885981e+38 -3.4028234663852885981e+38 -3.4028234663852885981e+38 -3.4028234663852885981e+38 -3.4028234663852885981e+38 -3.4028234663852885981e+38 -3.4028234663852885981e+38 -3.4028234663852885981e+38 -3.4028234663852885981e+38 -3.4028234663852885981e+38 -3.4028234663852885981e+38 -3.4028234663852885981e+38 51.72368621826171875 51.573635101318359375 51.716808319091796875 51.591785430908203125 51.049564361572265625 50.681789398193359375 50.38883209228515625 50.78623199462890625 51.482753753662109375 52.1814727783203125 52.9302520751953125 53.55611419677734375 53.737285614013671875 53.78618621826171875 53.8249664306640625 53.861553192138671875 54.0090484619140625 54.140224456787109375 54.306606292724609375 54.788726806640625 55.045108795166015625 54.45928192138671875 53.93848419189453125 53.593036651611328125 53.343902587890625 53.13013458251953125 52.712493896484375 52.208526611328125 51.462799072265625 50.9060821533203125 50.89608001708984375 51.219623565673828125 50.961223602294921875 50.228542327880859375 49.81262969970703125 49.500225067138671875 49.267482757568359375 49.004116058349609375 48.85124969482421875 48.9761962890625 49.163848876953125 49.341083526611328125 49.5100860595703125 49.51153564453125 49.41767120361328125 49.365680694580078125 49.224300384521484375 49.460601806640625 49.98221588134765625 51.71904754638671875 51.987865447998046875 52.192440032958984375 53.286167144775390625 55.165924072265625 56.280773162841796875 57.565822601318359375 57.51123809814453125 57.765476226806640625 57.723201751708984375 57.94863128662109375 57.31862640380859375 57.376262664794921875 58.00296783447265625 58.746417999267578125 59.61145782470703125 60.226596832275390625 60.44551849365234375 60.467380523681640625 60.50099945068359375 60.503635406494140625 60.294208526611328125 59.936168670654296875 59.50185394287109375 59.25846099853515625 59.285213470458984375 59.46026611328125 59.65261077880859375 59.786914825439453125 59.945529937744140625 59.82421112060546875 59.23480224609375 58.82115936279296875
-3.4028234663852885981e+38 -3.4028234663852885981e+38 -3.4028234663852885981e+38 -3.4028234663852885981e+38 -3.4028234663852885981e+38 -3.4028234663852885981e+38 -3.4028234663852885981e+38 -3.4028234663852885981e+38 -3.4028234663852885981e+38 -3.4028234663852885981e+38 -3.4028234663852885981e+38 -3.4028234663852885981e+38 -3.4028234663852885981e+38 -3.4028234663852885981e+38 -3.4028234663852885981e+38 -3.4028234663852885981e+38 -3.4028234663852885981e+38 -3.4028234663852885981e+38 -3.4028234663852885981e+38 -3.4028234663852885981e+38 -3.4028234663852885981e+38 -3.4028234663852885981e+38 -3.4028234663852885981e+38 -3.4028234663852885981e+38 -3.4028234663852885981e+38 -3.4028234663852885981e+38 -3.4028234663852885981e+38 -3.4028234663852885981e+38 -3.4028234663852885981e+38 -3.4028234663852885981e+38 -3.4028234663852885981e+38 -3.4028234663852885981e+38 -3.4028234663852885981e+38 -3.4028234663852885981e+38 -3.4028234663852885981e+38 -3.4028234663852885981e+38 -3.4028234663852885981e+38 -3.4028234663852885981e+38 -3.4028234663852885981e+38 -3.4028234663852885981e+38 -3.4028234663852885981e+38 -3.4028234663852885981e+38 -3.4028234663852885981e+38 -3.4028234663852885981e+38 -3.4028234663852885981e+38 -3.4028234663852885981e+38 -3.4028234663852885981e+38 -3.4028234663852885981e+38 -3.4028234663852885981e+38 -3.4028234663852885981e+38 -3.4028234663852885981e+38 -3.4028234663852885981e+38 -3.4028234663852885981e+38 -3.4028234663852885981e+38 -3.4028234663852885981e+38 -3.4028234663852885981e+38 -3.4028234663852885981e+38 -3.4028234663852885981e+38 -3.4028234663852885981e+38 -3.4028234663852885981e+38 -3.4028234663852885981e+38 -3.4028234663852885981e+38 -3.4028234663852885981e+38 -3.4028234663852885981e+38 -3.4028234663852885981e+38 -3.4028234663852885981e+38 -3.4028234663852885981e+38 -3.4028234663852885981e+38 -3.4028234663852885981e+38 -3.4028234663852885981e+38 53.852386474609375 53.886394500732421875 53.928089141845703125 53.96820831298828125 54.03963470458984375 54.095066070556640625 53.95265960693359375 53.8439178466796875 53.7115478515625 53.55477142333984375 53.2733154296875 52.86474609375 52.332340240478515625 51.5401153564453125 50.908786773681640625 50.843963623046875 50.995189666748046875 50.796535491943359375 50.282958984375 49.80072784423828125 49.400478363037109375 49.08074951171875 48.739902496337890625 48.4551239013671875 48.5969390869140625 48.916973114013671875 49.209285736083984375 49.469600677490234375 49.46559906005859375 49.321533203125 49.123378753662109375 48.831378936767578125 48.76921844482421875 49.0535888671875 50.50830078125 51.39205169677734375 51.6550445556640625 52.41745758056640625 53.43662261962890625 54.90702056884765625 55.838367462158203125 56.424297332763671875 56.291667938232421875 56.340373992919921875 57.22716522216796875 56.806438446044921875 56.94091033935546875 57.705448150634765625 58.656063079833984375 59.70981597900390625 60.4317169189453125 60.7107391357421875 60.738025665283203125 60.898334503173828125 61.134185791015625 60.994998931884765625 60.355587005615234375 59.669139862060546875 59.106109619140625 58.81377410888671875 58.68053436279296875 58.69084930419921875 58.93475341796875 59.050014495849609375 59.065479278564453125 58.7304534912109375 58.35802459716796875
-3.4028234663852885981e+38 -3.4028234663852885981e+38 -3.4028234663852885981e+38 -3.4028234663852885981e+38 -3.4028234663852885981e+38 -3.4028234663852885981e+38 -3.4028234663852885981e+38 -3.4028234663852885981e+38 -3.4028234663852885981e+38 -3.4028234663852885981e+38 -3.4028234663852885981e+38 -3.4028234663852885981e+38 -3.4028234663852885981e+38 -3.4028234663852885981e+38 -3.4028234663852885981e+38 -3.4028234663852885981e+38 -3.4028234663852885981e+38 -3.4028234663852885981e+38 -3.4028234663852885981e+38 -3.4028234663852885981e+38 -3.4028234663852885981e+38 -3.4028234663852885981e+38 -3.4028234663852885981e+38 -3.4028234663852885981e+38 -3.4028234663852885981e+38 -3.4028234663852885981e+38 -3.4028234663852885981e+38 -3.4028234663852885981e+38 -3.4028234663852885981e+38 -3.4028234663852885981e+38 -3.4028234663852885981e+38 -3.4028234663852885981e+38 -3.4028234663852885981e+38 -3.4028234663852885981e+38 -3.4028234663852885981e+38 -3.4028234663852885981e+38 -3.4028234663852885981e+38 -3.4028234663852885981e+38 -3.4028234663852885981e+38 -3.4028234663852885981e+38 -3.4028234663852885981e+38 -3.4028234663852885981e+38 -3.4028234663852885981e+38 -3.4028234663852885981e+38 -3.4028234663852885981e+38 -3.4028234663852885981e+38 -3.4028234663852885981e+38 -3.4028234663852885981e+38 -3.4028234663852885981e+38 -3.4028234663852885981e+38 -3.4028234663852885981e+38 -3.4028234663852885981e+38 -3.4028234663852885981e+38 -3.4028234663852885981e+38 -3.4028234663852885981e+38 -3.4028234663852885981e+38 -3.4028234663852885981e+38 -3.4028234663852885981e+38 -3.4028234663852885981e+38 -3.4028234663852885981e+38 -3.4028234663852885981e+38 -3.4028234663852885981e+38 -3.4028234663852885981e+38 -3.4028234663852885981e+38 -3.4028234663852885981e+38 -3.4028234663852885981e+38 -3.4028234663852885981e+38 -3.4028234663852885981e+38 -3.4028234663852885981e+38 -3.4028234663852885981e+38 -3.4028234663852885981e+38 -3.4028234663852885981e+38 -3.4028234663852885981e+38 -3.4028234663852885981e+38 -3.4028234663852885981e+38 -3.4028234663852885981e+38 -3.4028234663852885981e+38 -3.4028234663852885981e+38 -3.4028234663852885981e+38 -3.4028234663852885981e+38 -3.4028234663852885981e+38 -3.4028234663852885981e+38 -3.4028234663852885981e+38 -3.4028234663852885981e+38 50.908786773681640625 50.76082611083984375 50.737598419189453125 50.560825347900390625 50.20406341552734375 49.806549072265625 49.448394775390625 49.11046600341796875 48.707386016845703125 48.41820526123046875 48.5088348388671875 48.817600250244140625 49.05445098876953125 49.21338653564453125 49.1636199951171875 49.153961181640625 48.833484649658203125 48.5660400390625 48.3934783935546875 48.656818389892578125 49.315097808837890625 50.39434814453125 51.000049591064453125 51.654544830322265625 52.043788909912109375 53.2660980224609375 54.153858184814453125 54.660572052001953125 54.88845062255859375 54.96298980712890625 56.224697113037109375 56.13094329833984375 56.630458831787109375 57.526073455810546875 58.556285858154296875 59.85141754150390625 60.664638519287109375 60.977970123291015625 61.00653076171875 61.210796356201171875 61.5272979736328125 61.428131103515625 60.60639190673828125 59.70995330810546875 58.973480224609375 58.373737335205078125 58.18723297119140625 58.2649383544921875 58.357761383056640625 58.40435028076171875 58.32353973388671875 57.94545745849609375 57.547454833984375
